10.058399999999999,6.7056,-0.0
10.058399999999999,7.543799999999999,-0.08391608391608392
10.058399999999999,8.382,-0.14265734265734267
10.058399999999999,9.2202,-0.04195804195804196
10.058399999999999,10.058399999999999,-0.04755244755244756
10.058399999999999,10.8966,-0.19020979020979023
10.058399999999999,11.7348,-0.23776223776223776
10.058399999999999,12.572999999999999,-0.24055944055944056
10.058399999999999,13.4112,-0.23496503496503496
10.058399999999999,14.2494,-0.17342657342657342
10.058399999999999,15.087599999999998,-0.02517482517482518
10.058399999999999,15.925799999999999,-0.0
10.058399999999999,16.764,-0.0
10.058399999999999,17.6022,-0.0
10.058399999999999,18.4404,-0.0
10.058399999999999,19.278599999999997,-0.0
10.058399999999999,20.116799999999998,-0.0
10.058399999999999,20.955,-0.0
10.058399999999999,21.7932,-0.0
10.058399999999999,22.6314,-0.0
10.058399999999999,23.4696,-0.08391608391608392
10.058399999999999,24.307799999999997,-0.2433566433566434
10.058399999999999,25.145999999999997,-0.32167832167832167
10.058399999999999,25.984199999999998,-0.3944055944055944
10.058399999999999,26.8224,-0.4
10.058399999999999,27.6606,-0.35804195804195804
10.058399999999999,28.4988,-0.3552447552447553
10.058399999999999,29.337,-0.27972027972027974
10.058399999999999,30.175199999999997,-0.0
10.058399999999999,31.013399999999997,-0.0
10.058399999999999,31.851599999999998,-0.0
10.058399999999999,32.6898,-0.0
10.058399999999999,33.528,-0.0
10.058399999999999,34.3662,-0.0
10.058399999999999,35.2044,-0.0
10.058399999999999,36.0426,-0.0
10.8966,0.0,-0.0
10.8966,0.8382,-0.0
10.8966,1.6764,-0.0
10.8966,2.5145999999999997,-0.0
10.8966,3.3528,-0.0
10.8966,4.191,-0.0
10.8966,5.0291999999999994,-0.0
10.8966,5.8674,-0.0
10.8966,6.7056,-0.0
10.8966,7.543799999999999,-0.0
10.8966,8.382,-0.0
10.8966,9.2202,-0.0
10.8966,10.058399999999999,-0.0
10.8966,10.8966,-0.07272727272727274
10.8966,11.7348,-0.20699300699300702
10.8966,12.572999999999999,-0.2125874125874126
10.8966,13.4112,-0.20699300699300702
10.8966,14.2494,-0.033566433566433566
10.8966,15.087599999999998,-0.0
10.8966,15.925799999999999,-0.0
10.8966,16.764,-0.0
10.8966,17.6022,-0.0
10.8966,18.4404,-0.0
10.8966,19.278599999999997,-0.0
10.8966,20.116799999999998,-0.0
10.8966,20.955,-0.0
10.8966,21.7932,-0.0
10.8966,22.6314,-0.0
10.8966,23.4696,-0.0
10.8966,24.307799999999997,-0.15384615384615385
10.8966,25.145999999999997,-0.28531468531468535
10.8966,25.984199999999998,-0.3328671328671329
10.8966,26.8224,-0.36923076923076925
10.8966,27.6606,-0.36363636363636365
10.8966,28.4988,-0.35804195804195804
10.8966,29.337,-0.16223776223776223
10.8966,30.175199999999997,-0.0
10.8966,31.013399999999997,-0.0
10.8966,31.851599999999998,-0.0
10.8966,32.6898,-0.0
10.8966,33.528,-0.0
10.8966,34.3662,-0.0
10.8966,35.2044,-0.0
10.8966,36.0426,-0.0
11.7348,0.0,-0.0
11.7348,0.8382,-0.0
11.7348,1.6764,-0.0
11.7348,2.5145999999999997,-0.0
11.7348,3.3528,-0.0
11.7348,4.191,-0.0
11.7348,5.0291999999999994,-0.0
11.7348,5.8674,-0.0
11.7348,6.7056,-0.0
11.7348,7.543799999999999,-0.0
11.7348,8.382,-0.0
11.7348,9.2202,-0.0
11.7348,10.058399999999999,-0.0
11.7348,10.8966,-0.0
11.7348,11.7348,-0.011188811188811189
11.7348,12.572999999999999,-0.05034965034965036
11.7348,13.4112,-0.011188811188811189
11.7348,14.2494,-0.0
11.7348,15.087599999999998,-0.0
11.7348,15.925799999999999,-0.0
11.7348,16.764,-0.0
11.7348,17.6022,-0.0
11.7348,18.4404,-0.0
11.7348,19.278599999999997,-0.0
11.7348,20.116799999999998,-0.0
11.7348,20.955,-0.0
11.7348,21.7932,-0.0
11.7348,22.6314,-0.0
11.7348,23.4696,-0.0
11.7348,24.307799999999997,-0.0
11.7348,25.145999999999997,-0.06713286713286713
11.7348,25.984199999999998,-0.2125874125874126
11.7348,26.8224,-0.3328671328671329
11.7348,27.6606,-0.28531468531468535
11.7348,28.4988,-0.16783216783216784
11.7348,29.337,-0.0
11.7348,30.175199999999997,-0.0
11.7348,31.013399999999997,-0.0
11.7348,31.851599999999998,-0.0
11.7348,32.6898,-0.0
11.7348,33.528,-0.0
11.7348,34.3662,-0.0
11.7348,35.2044,-0.0
11.7348,36.0426,-0.0
12.572999999999999,0.0,-0.0
12.572999999999999,0.8382,-0.0
12.572999999999999,1.6764,-0.0
12.572999999999999,2.5145999999999997,-0.0
12.572999999999999,3.3528,-0.0
12.572999999999999,4.191,-0.0
12.572999999999999,5.0291999999999994,-0.0
12.572999999999999,5.8674,-0.0
12.572999999999999,6.7056,-0.0
12.572999999999999,7.543799999999999,-0.0
12.572999999999999,8.382,-0.0
12.572999999999999,9.2202,-0.0
12.572999999999999,10.058399999999999,-0.0
12.572999999999999,10.8966,-0.0
12.572999999999999,11.7348,-0.0
12.572999999999999,12.572999999999999,-0.0
12.572999999999999,13.4112,-0.0
12.572999999999999,14.2494,-0.0
12.572999999999999,15.087599999999998,-0.0
12.572999999999999,15.925799999999999,-0.0
12.572999999999999,16.764,-0.0
12.572999999999999,17.6022,-0.0
12.572999999999999,18.4404,-0.0
12.572999999999999,19.278599999999997,-0.0
12.572999999999999,20.116799999999998,-0.0
12.572999999999999,20.955,-0.0
12.572999999999999,21.7932,-0.0
12.572999999999999,22.6314,-0.0
12.572999999999999,23.4696,-0.0
12.572999999999999,24.307799999999997,-0.0
12.572999999999999,25.145999999999997,-0.0
12.572999999999999,25.984199999999998,-0.0
12.572999999999999,26.8224,-0.0
12.572999999999999,27.6606,-0.0
12.572999999999999,28.4988,-0.0
12.572999999999999,29.337,-0.0
12.572999999999999,30.175199999999997,-0.0
12.572999999999999,31.013399999999997,-0.0
12.572999999999999,31.851599999999998,-0.0
12.572999999999999,32.6898,-0.0
12.572999999999999,33.528,-0.0
12.572999999999999,34.3662,-0.0
12.572999999999999,35.2044,-0.0
12.572999999999999,36.0426,-0.0
13.4112,0.0,-0.0
13.4112,0.8382,-0.0
13.4112,1.6764,-0.0
13.4112,2.5145999999999997,-0.0
13.4112,3.3528,-0.0
13.4112,4.191,-0.0
13.4112,5.0291999999999994,-0.0
13.4112,5.8674,-0.0
13.4112,6.7056,-0.0
13.4112,7.543799999999999,-0.0
13.4112,8.382,-0.0
13.4112,9.2202,-0.0
13.4112,10.058399999999999,-0.0
13.4112,10.8966,-0.0
13.4112,11.7348,-0.0
13.4112,12.572999999999999,-0.0
13.4112,13.4112,-0.0
13.4112,14.2494,-0.0
13.4112,15.087599999999998,-0.0
13.4112,15.925799999999999,-0.0
13.4112,16.764,-0.0
13.4112,17.6022,-0.0
13.4112,18.4404,-0.0
13.4112,19.278599999999997,-0.0
13.4112,20.116799999999998,-0.0
13.4112,20.955,-0.0
13.4112,21.7932,-0.0
13.4112,22.6314,-0.0
13.4112,23.4696,-0.0
13.4112,24.307799999999997,-0.0
13.4112,25.145999999999997,-0.0
13.4112,25.984199999999998,-0.0
13.4112,26.8224,-0.0
13.4112,27.6606,-0.0
13.4112,28.4988,-0.0
13.4112,29.337,-0.0
13.4112,30.175199999999997,-0.0
13.4112,31.013399999999997,-0.0
13.4112,31.851599999999998,-0.0
13.4112,32.6898,-0.0
13.4112,33.528,-0.0
13.4112,34.3662,-0.0
13.4112,35.2044,-0.0
13.4112,36.0426,-0.0
14.2494,0.0,-0.0
14.2494,0.8382,-0.0
14.2494,1.6764,-0.0
14.2494,2.5145999999999997,-0.0
14.2494,3.3528,-0.0
14.2494,4.191,-0.0
14.2494,5.0291999999999994,-0.0
14.2494,5.8674,-0.0
14.2494,6.7056,-0.0
14.2494,7.543799999999999,-0.0
14.2494,8.382,-0.0
14.2494,9.2202,-0.0
14.2494,10.058399999999999,-0.0
14.2494,10.8966,-0.0
14.2494,11.7348,-0.0
14.2494,12.572999999999999,-0.0
14.2494,13.4112,-0.0
14.2494,14.2494,-0.0
14.2494,15.087599999999998,-0.0
14.2494,15.925799999999999,-0.0
14.2494,16.764,-0.0
14.2494,17.6022,-0.0
14.2494,18.4404,-0.0
14.2494,19.278599999999997,-0.0
14.2494,20.116799999999998,-0.0
14.2494,20.955,-0.0
14.2494,21.7932,-0.0
14.2494,22.6314,-0.0
14.2494,23.4696,-0.0
14.2494,24.307799999999997,-0.0
14.2494,25.145999999999997,-0.0
14.2494,25.984199999999998,-0.0
14.2494,26.8224,-0.0
14.2494,27.6606,-0.0
14.2494,28.4988,-0.0
14.2494,29.337,-0.0
14.2494,30.175199999999997,-0.0
14.2494,31.013399999999997,-0.0
14.2494,31.851599999999998,-0.0
14.2494,32.6898,-0.0
14.2494,33.528,-0.0
14.2494,34.3662,-0.0
14.2494,35.2044,-0.0
14.2494,36.0426,-0.0
15.087599999999998,0.0,-0.0
15.087599999999998,0.8382,-0.0
15.087599999999998,1.6764,-0.0
15.087599999999998,2.5145999999999997,-0.0
15.087599999999998,3.3528,-0.0
15.087599999999998,4.191,-0.0
15.087599999999998,5.0291999999999994,-0.0
15.087599999999998,5.8674,-0.0
15.087599999999998,6.7056,-0.0
15.087599999999998,7.543799999999999,-0.0
15.087599999999998,8.382,-0.0
15.087599999999998,9.2202,-0.0
15.087599999999998,10.058399999999999,-0.0
15.087599999999998,10.8966,-0.0
15.087599999999998,11.7348,-0.0
15.087599999999998,12.572999999999999,-0.0
15.087599999999998,13.4112,-0.0
15.087599999999998,14.2494,-0.0
15.087599999999998,15.087599999999998,-0.0
15.087599999999998,15.925799999999999,-0.0
15.087599999999998,16.764,-0.0
15.087599999999998,17.6022,-0.0
15.087599999999998,18.4404,-0.0
15.087599999999998,19.278599999999997,-0.0
15.087599999999998,20.116799999999998,-0.0
15.087599999999998,20.955,-0.0
15.087599999999998,21.7932,-0.0
15.087599999999998,22.6314,-0.0
15.087599999999998,23.4696,-0.0
15.087599999999998,24.307799999999997,-0.0
15.087599999999998,25.145999999999997,-0.0
15.087599999999998,25.984199999999998,-0.0
15.087599999999998,26.8224,-0.0
15.087599999999998,27.6606,-0.0
15.087599999999998,28.4988,-0.0
15.087599999999998,29.337,-0.0
15.087599999999998,30.175199999999997,-0.0
15.087599999999998,31.013399999999997,-0.0
15.087599999999998,31.851599999999998,-0.0
15.087599999999998,32.6898,-0.0
15.087599999999998,33.528,-0.0
15.087599999999998,34.3662,-0.0
15.087599999999998,35.2044,-0.0
15.087599999999998,36.0426,-0.0
15.925799999999999,0.0,-0.0
15.925799999999999,0.8382,-0.0
15.925799999999999,1.6764,-0.0
15.925799999999999,2.5145999999999997,-0.0
15.925799999999999,3.3528,-0.0
15.925799999999999,4.191,-0.0
15.925799999999999,5.0291999999999994,-0.0
15.925799999999999,5.8674,-0.0
15.925799999999999,6.7056,-0.0
15.925799999999999,7.543799999999999,-0.0
15.925799999999999,8.382,-0.0
15.925799999999999,9.2202,-0.0
15.925799999999999,10.058399999999999,-0.0
15.925799999999999,10.8966,-0.0
15.925799999999999,11.7348,-0.0
15.925799999999999,12.572999999999999,-0.0
15.925799999999999,13.4112,-0.0
15.925799999999999,14.2494,-0.0
15.925799999999999,15.087599999999998,-0.0
15.925799999999999,15.925799999999999,-0.0
15.925799999999999,16.764,-0.0
15.925799999999999,17.6022,-0.0
15.925799999999999,18.4404,-0.0
15.925799999999999,19.278599999999997,-0.0
15.925799999999999,20.116799999999998,-0.0
15.925799999999999,20.955,-0.0
15.925799999999999,21.7932,-0.0
15.925799999999999,22.6314,-0.0
15.925799999999999,23.4696,-0.0
15.925799999999999,24.307799999999997,-0.0
15.925799999999999,25.145999999999997,-0.0
15.925799999999999,25.984199999999998,-0.0
15.925799999999999,26.8224,-0.0
15.925799999999999,27.6606,-0.0
15.925799999999999,28.4988,-0.0
15.925799999999999,29.337,-0.0
15.925799999999999,30.175199999999997,-0.0
15.925799999999999,31.013399999999997,-0.0
15.925799999999999,31.851599999999998,-0.0
15.925799999999999,32.6898,-0.0
15.925799999999999,33.528,-0.0
15.925799999999999,34.3662,-0.0
15.925799999999999,35.2044,-0.0
15.925799999999999,36.0426,-0.0
16.764,0.0,-0.0
16.764,0.8382,-0.0
16.764,1.6764,-0.0
16.764,2.5145999999999997,-0.0
16.764,3.3528,-0.0
16.764,4.191,-0.0
16.764,5.0291999999999994,-0.0
16.764,5.8674,-0.0
16.764,6.7056,-0.0
16.764,7.543799999999999,-0.0
16.764,8.382,-0.0
16.764,9.2202,-0.0
16.764,10.058399999999999,-0.0
16.764,10.8966,-0.0
16.764,11.7348,-0.0
16.764,12.572999999999999,-0.0
16.764,13.4112,-0.0
16.764,14.2494,-0.0
16.764,15.087599999999998,-0.0
16.764,15.925799999999999,-0.0
16.764,16.764,-0.0
16.764,17.6022,-0.0
16.764,18.4404,-0.0
16.764,19.278599999999997,-0.0
16.764,20.116799999999998,-0.0
16.764,20.955,-0.0
16.764,21.7932,-0.0
16.764,22.6314,-0.0
16.764,23.4696,-0.0
16.764,24.307799999999997,-0.0
16.764,25.145999999999997,-0.0
16.764,25.984199999999998,-0.0
16.764,26.8224,-0.0
16.764,27.6606,-0.0
16.764,28.4988,-0.0
16.764,29.337,-0.0
16.764,30.175199999999997,-0.0
16.764,31.013399999999997,-0.0
16.764,31.851599999999998,-0.0
16.764,32.6898,-0.0
16.764,33.528,-0.0
16.764,34.3662,-0.0
16.764,35.2044,-0.0
16.764,36.0426,-0.0
17.6022,0.0,-0.0
17.6022,0.8382,-0.0
17.6022,1.6764,-0.0
17.6022,2.5145999999999997,-0.0
17.6022,3.3528,-0.0
17.6022,4.191,-0.0
17.6022,5.0291999999999994,-0.0
17.6022,5.8674,-0.0
17.6022,6.7056,-0.0
17.6022,7.543799999999999,-0.0
17.6022,8.382,-0.0
17.6022,9.2202,-0.0
17.6022,10.058399999999999,-0.0
17.6022,10.8966,-0.0
17.6022,11.7348,-0.0
17.6022,12.572999999999999,-0.0
17.6022,13.4112,-0.0
17.6022,14.2494,-0.0
17.6022,15.087599999999998,-0.0
17.6022,15.925799999999999,-0.0
17.6022,16.764,-0.0
17.6022,17.6022,-0.0
17.6022,18.4404,-0.0
17.6022,19.278599999999997,-0.0
17.6022,20.116799999999998,-0.0
17.6022,20.955,-0.0
17.6022,21.7932,-0.0
17.6022,22.6314,-0.0
17.6022,23.4696,-0.0
17.6022,24.307799999999997,-0.0
17.6022,25.145999999999997,-0.0
17.6022,25.984199999999998,-0.0
17.6022,26.8224,-0.0
17.6022,27.6606,-0.0
17.6022,28.4988,-0.0
17.6022,29.337,-0.0
17.6022,30.175199999999997,-0.0
17.6022,31.013399999999997,-0.0
17.6022,31.851599999999998,-0.0
17.6022,32.6898,-0.0
17.6022,33.528,-0.0
17.6022,34.3662,-0.0
17.6022,35.2044,-0.0
17.6022,36.0426,-0.0
18.4404,0.0,-0.0
18.4404,0.8382,-0.0
18.4404,1.6764,-0.0
18.4404,2.5145999999999997,-0.0
18.4404,3.3528,-0.0
18.4404,4.191,-0.0
18.4404,5.0291999999999994,-0.0
18.4404,5.8674,-0.0
18.4404,6.7056,-0.0
18.4404,7.543799999999999,-0.0
18.4404,8.382,-0.0
18.4404,9.2202,-0.0
18.4404,10.058399999999999,-0.0
18.4404,10.8966,-0.0
18.4404,11.7348,-0.0
18.4404,12.572999999999999,-0.0
18.4404,13.4112,-0.0
18.4404,14.2494,-0.0
18.4404,15.087599999999998,-0.0
18.4404,15.925799999999999,-0.0
18.4404,16.764,-0.0
18.4404,17.6022,-0.0
18.4404,18.4404,-0.0
18.4404,19.278599999999997,-0.0
18.4404,20.116799999999998,-0.0
18.4404,20.955,-0.0
18.4404,21.7932,-0.0
18.4404,22.6314,-0.0
18.4404,23.4696,-0.0
18.4404,24.307799999999997,-0.0
18.4404,25.145999999999997,-0.0
18.4404,25.984199999999998,-0.0
18.4404,26.8224,-0.0
18.4404,27.6606,-0.0
18.4404,28.4988,-0.0
18.4404,29.337,-0.0
18.4404,30.175199999999997,-0.0
18.4404,31.013399999999997,-0.0
18.4404,31.851599999999998,-0.0
18.4404,32.6898,-0.0
18.4404,33.528,-0.0
18.4404,34.3662,-0.0
18.4404,35.2044,-0.0
18.4404,36.0426,-0.0
19.278599999999997,0.0,-0.0
19.278599999999997,0.8382,-0.0
19.278599999999997,1.6764,-0.0
19.278599999999997,2.5145999999999997,-0.0
19.278599999999997,3.3528,-0.0
19.278599999999997,4.191,-0.0
19.278599999999997,5.0291999999999994,-0.0
19.278599999999997,5.8674,-0.0
19.278599999999997,6.7056,-0.0
19.278599999999997,7.543799999999999,-0.0
19.278599999999997,8.382,-0.0
19.278599999999997,9.2202,-0.0
19.278599999999997,10.058399999999999,-0.0
19.278599999999997,10.8966,-0.0
19.278599999999997,11.7348,-0.0
19.278599999999997,12.572999999999999,-0.0
19.278599999999997,13.4112,-0.0
19.278599999999997,14.2494,-0.0
19.278599999999997,15.087599999999998,-0.0
19.278599999999997,15.925799999999999,-0.0
19.278599999999997,16.764,-0.0
19.278599999999997,17.6022,-0.0
19.278599999999997,18.4404,-0.0
19.278599999999997,19.278599999999997,-0.0
19.278599999999997,20.116799999999998,-0.0
19.278599999999997,20.955,-0.0
19.278599999999997,21.7932,-0.0
19.278599999999997,22.6314,-0.0
19.278599999999997,23.4696,-0.0
19.278599999999997,24.307799999999997,-0.0
19.278599999999997,25.145999999999997,-0.0
19.278599999999997,25.984199999999998,-0.0
19.278599999999997,26.8224,-0.0
19.278599999999997,27.6606,-0.0
19.278599999999997,28.4988,-0.0
19.278599999999997,29.337,-0.0
19.278599999999997,30.175199999999997,-0.0
19.278599999999997,31.013399999999997,-0.0
19.278599999999997,31.851599999999998,-0.0
19.278599999999997,32.6898,-0.0
19.278599999999997,33.528,-0.0
19.278599999999997,34.3662,-0.0
19.278599999999997,35.2044,-0.0
19.278599999999997,36.0426,-0.0
20.116799999999998,0.0,-0.0
20.116799999999998,0.8382,-0.0
20.116799999999998,1.6764,-0.0
20.116799999999998,2.5145999999999997,-0.0
20.116799999999998,3.3528,-0.0
20.116799999999998,4.191,-0.0
20.116799999999998,5.0291999999999994,-0.0
20.116799999999998,5.8674,-0.0
20.116799999999998,6.7056,-0.0
20.116799999999998,7.543799999999999,-0.0
20.116799999999998,8.382,-0.0
20.116799999999998,9.2202,-0.0
20.116799999999998,10.058399999999999,-0.0
20.116799999999998,10.8966,-0.0
20.116799999999998,11.7348,-0.0
20.116799999999998,12.572999999999999,-0.0
20.116799999999998,13.4112,-0.0
20.116799999999998,14.2494,-0.0
20.116799999999998,15.087599999999998,-0.0
20.116799999999998,15.925799999999999,-0.0
20.116799999999998,16.764,-0.0
20.116799999999998,17.6022,-0.0
20.116799999999998,18.4404,-0.0
20.116799999999998,19.278599999999997,-0.0
20.116799999999998,20.116799999999998,-0.0
20.116799999999998,20.955,-0.0
20.116799999999998,21.7932,-0.0
20.116799999999998,22.6314,-0.0
20.116799999999998,23.4696,-0.0
20.116799999999998,24.307799999999997,-0.0
20.116799999999998,25.145999999999997,-0.0
20.116799999999998,25.984199999999998,-0.0
20.116799999999998,26.8224,-0.0
20.116799999999998,27.6606,-0.0
20.116799999999998,28.4988,-0.0
20.116799999999998,29.337,-0.0
20.116799999999998,30.175199999999997,-0.0
20.116799999999998,31.013399999999997,-0.0
20.116799999999998,31.851599999999998,-0.0
20.116799999999998,32.6898,-0.0
20.116799999999998,33.528,-0.0
20.116799999999998,34.3662,-0.0
20.116799999999998,35.2044,-0.0
20.116799999999998,36.0426,-0.0
20.955,0.0,-0.0
20.955,0.8382,-0.0
20.955,1.6764,-0.0
20.955,2.5145999999999997,-0.0
20.955,3.3528,-0.0
20.955,4.191,-0.0
20.955,5.0291999999999994,-0.0
20.955,5.8674,-0.0
20.955,6.7056,-0.0
20.955,7.543799999999999,-0.0
20.955,8.382,-0.0
20.955,9.2202,-0.0
20.955,10.058399999999999,-0.0
20.955,10.8966,-0.0
20.955,11.7348,-0.0
20.955,12.572999999999999,-0.0
20.955,13.4112,-0.0
20.955,14.2494,-0.0
20.955,15.087599999999998,-0.0
20.955,15.925799999999999,-0.0
20.955,16.764,-0.0
20.955,17.6022,-0.0
20.955,18.4404,-0.0
20.955,19.278599999999997,-0.0
20.955,20.116799999999998,-0.0
20.955,20.955,-0.0
20.955,21.7932,-0.0
20.955,22.6314,-0.0
20.955,23.4696,-0.0
20.955,24.307799999999997,-0.0
20.955,25.145999999999997,-0.0
20.955,25.984199999999998,-0.0
20.955,26.8224,-0.0
20.955,27.6606,-0.0
20.955,28.4988,-0.0
20.955,29.337,-0.0
20.955,30.175199999999997,-0.0
20.955,31.013399999999997,-0.0
20.955,31.851599999999998,-0.0
20.955,32.6898,-0.0
20.955,33.528,-0.0
20.955,34.3662,-0.0
20.955,35.2044,-0.0
20.955,36.0426,-0.0
21.7932,0.0,-0.0
21.7932,0.8382,-0.0
21.7932,1.6764,-0.0
21.7932,2.5145999999999997,-0.0
21.7932,3.3528,-0.0
21.7932,4.191,-0.0
21.7932,5.0291999999999994,-0.0
21.7932,5.8674,-0.0
21.7932,6.7056,-0.0
21.7932,7.543799999999999,-0.0
21.7932,8.382,-0.0
21.7932,9.2202,-0.0
21.7932,10.058399999999999,-0.0
21.7932,10.8966,-0.0
21.7932,11.7348,-0.0
21.7932,12.572999999999999,-0.0
21.7932,13.4112,-0.0
21.7932,14.2494,-0.0
21.7932,15.087599999999998,-0.0
21.7932,15.925799999999999,-0.0
21.7932,16.764,-0.0
21.7932,17.6022,-0.0
21.7932,18.4404,-0.0
21.7932,19.278599999999997,-0.0
21.7932,20.116799999999998,-0.0
21.7932,20.955,-0.0
21.7932,21.7932,-0.0
21.7932,22.6314,-0.0
21.7932,23.4696,-0.0
21.7932,24.307799999999997,-0.0
21.7932,25.145999999999997,-0.0
21.7932,25.984199999999998,-0.0
21.7932,26.8224,-0.0
21.7932,27.6606,-0.0
21.7932,28.4988,-0.0
21.7932,29.337,-0.0
21.7932,30.175199999999997,-0.0
21.7932,31.013399999999997,-0.0
21.7932,31.851599999999998,-0.0
21.7932,32.6898,-0.0
21.7932,33.528,-0.0
21.7932,34.3662,-0.0
21.7932,35.2044,-0.0
21.7932,36.0426,-0.0
22.6314,0.0,-0.0
22.6314,0.8382,-0.0
22.6314,1.6764,-0.0
22.6314,2.5145999999999997,-0.0
22.6314,3.3528,-0.0
22.6314,4.191,-0.0
22.6314,5.0291999999999994,-0.0
22.6314,5.8674,-0.0
22.6314,6.7056,-0.0
22.6314,7.543799999999999,-0.0
22.6314,8.382,-0.0
22.6314,9.2202,-0.0
22.6314,10.058399999999999,-0.0
22.6314,10.8966,-0.0
22.6314,11.7348,-0.0
22.6314,12.572999999999999,-0.0
22.6314,13.4112,-0.0
22.6314,14.2494,-0.0
22.6314,15.087599999999998,-0.0
22.6314,15.925799999999999,-0.0
22.6314,16.764,-0.0
22.6314,17.6022,-0.0
22.6314,18.4404,-0.0
22.6314,19.278599999999997,-0.0
22.6314,20.116799999999998,-0.0
22.6314,20.955,-0.0
22.6314,21.7932,-0.0
22.6314,22.6314,-0.0
22.6314,23.4696,-0.0
22.6314,24.307799999999997,-0.0
22.6314,25.145999999999997,-0.0
22.6314,25.984199999999998,-0.0
22.6314,26.8224,-0.0
22.6314,27.6606,-0.0
22.6314,28.4988,-0.0
22.6314,29.337,-0.0
22.6314,30.175199999999997,-0.0
22.6314,31.013399999999997,-0.0
22.6314,31.851599999999998,-0.0
22.6314,32.6898,-0.0
22.6314,33.528,-0.0
22.6314,34.3662,-0.0
22.6314,35.2044,-0.0
22.6314,36.0426,-0.0
23.4696,0.0,-0.0
23.4696,0.8382,-0.0
23.4696,1.6764,-0.0
23.4696,2.5145999999999997,-0.0
23.4696,3.3528,-0.0
23.4696,4.191,-0.0
23.4696,5.0291999999999994,-0.0
23.4696,5.8674,-0.0
23.4696,6.7056,-0.0
23.4696,7.543799999999999,-0.0
23.4696,8.382,-0.0
23.4696,9.2202,-0.0
23.4696,10.058399999999999,-0.0
23.4696,10.8966,-0.0
23.4696,11.7348,-0.0
23.4696,12.572999999999999,-0.0
23.4696,13.4112,-0.0
23.4696,14.2494,-0.0
23.4696,15.087599999999998,-0.0
23.4696,15.925799999999999,-0.0
23.4696,16.764,-0.0
23.4696,17.6022,-0.0
23.4696,18.4404,-0.0
23.4696,19.278599999999997,-0.0
23.4696,20.116799999999998,-0.0
23.4696,20.955,-0.0
23.4696,21.7932,-0.0
23.4696,22.6314,-0.0
23.4696,23.4696,-0.0
23.4696,24.307799999999997,-0.0
23.4696,25.145999999999997,-0.0
23.4696,25.984199999999998,-0.0
23.4696,26.8224,-0.0
23.4696,27.6606,-0.0
23.4696,28.4988,-0.0
23.4696,29.337,-0.0
23.4696,30.175199999999997,-0.0
23.4696,31.013399999999997,-0.0
23.4696,31.851599999999998,-0.0
23.4696,32.6898,-0.0
23.4696,33.528,-0.0
23.4696,34.3662,-0.0
23.4696,35.2044,-0.0
23.4696,36.0426,-0.0
24.307799999999997,0.0,-0.0
24.307799999999997,0.8382,-0.0
24.307799999999997,1.6764,-0.0
24.307799999999997,2.5145999999999997,-0.0
24.307799999999997,3.3528,-0.0
24.307799999999997,4.191,-0.0
24.307799999999997,5.0291999999999994,-0.0
24.307799999999997,5.8674,-0.0
24.307799999999997,6.7056,-0.0
24.307799999999997,7.543799999999999,-0.0
24.307799999999997,8.382,-0.0
24.307799999999997,9.2202,-0.0
24.307799999999997,10.058399999999999,-0.0
24.307799999999997,10.8966,-0.0
24.307799999999997,11.7348,-0.0
24.307799999999997,12.572999999999999,-0.0
24.307799999999997,13.4112,-0.0
24.307799999999997,14.2494,-0.0
24.307799999999997,15.087599999999998,-0.0
24.307799999999997,15.925799999999999,-0.0
24.307799999999997,16.764,-0.0
24.307799999999997,17.6022,-0.0
24.307799999999997,18.4404,-0.0
24.307799999999997,19.278599999999997,-0.0
24.307799999999997,20.116799999999998,-0.0
24.307799999999997,20.955,-0.0
24.307799999999997,21.7932,-0.0
24.307799999999997,22.6314,-0.0
24.307799999999997,23.4696,-0.0
24.307799999999997,24.307799999999997,-0.0
24.307799999999997,25.145999999999997,-0.0
24.307799999999997,25.984199999999998,-0.0
24.307799999999997,26.8224,-0.0
24.307799999999997,27.6606,-0.0
24.307799999999997,28.4988,-0.0
24.307799999999997,29.337,-0.0
24.307799999999997,30.175199999999997,-0.0
24.307799999999997,31.013399999999997,-0.0
24.307799999999997,31.851599999999998,-0.0
24.307799999999997,32.6898,-0.0
24.307799999999997,33.528,-0.0
24.307799999999997,34.3662,-0.0
24.307799999999997,35.2044,-0.0
24.307799999999997,36.0426,-0.0
25.145999999999997,0.0,-0.0
25.145999999999997,0.8382,-0.0
25.145999999999997,1.6764,-0.0
25.145999999999997,2.5145999999999997,-0.0
25.145999999999997,3.3528,-0.0
25.145999999999997,4.191,-0.0
25.145999999999997,5.0291999999999994,-0.0
25.145999999999997,5.8674,-0.0
25.145999999999997,6.7056,-0.0
25.145999999999997,7.543799999999999,-0.0
25.145999999999997,8.382,-0.0
25.145999999999997,9.2202,-0.0
25.145999999999997,10.058399999999999,-0.0
25.145999999999997,10.8966,-0.0
25.145999999999997,11.7348,-0.0
25.145999999999997,12.572999999999999,-0.0
25.145999999999997,13.4112,-0.0
25.145999999999997,14.2494,-0.0
25.145999999999997,15.087599999999998,-0.0
25.145999999999997,15.925799999999999,-0.0
25.145999999999997,16.764,-0.0
25.145999999999997,17.6022,-0.0
25.145999999999997,18.4404,-0.0
25.145999999999997,19.278599999999997,-0.0
25.145999999999997,20.116799999999998,-0.0
25.145999999999997,20.955,-0.0
25.145999999999997,21.7932,-0.0
25.145999999999997,22.6314,-0.0
25.145999999999997,23.4696,-0.0
25.145999999999997,24.307799999999997,-0.0
25.145999999999997,25.145999999999997,-0.0
25.145999999999997,25.984199999999998,-0.0
25.145999999999997,26.8224,-0.0
25.145999999999997,27.6606,-0.0
25.145999999999997,28.4988,-0.0
25.145999999999997,29.337,-0.0
25.145999999999997,30.175199999999997,-0.0
25.145999999999997,31.013399999999997,-0.0
25.145999999999997,31.851599999999998,-0.0
25.145999999999997,32.6898,-0.0
25.145999999999997,33.528,-0.0
25.145999999999997,34.3662,-0.0
25.145999999999997,35.2044,-0.0
25.145999999999997,36.0426,-0.0
25.984199999999998,0.0,-0.0
25.984199999999998,0.8382,-0.0
25.984199999999998,1.6764,-0.0
25.984199999999998,2.5145999999999997,-0.0
25.984199999999998,3.3528,-0.0
25.984199999999998,4.191,-0.0
25.984199999999998,5.0291999999999994,-0.0
25.984199999999998,5.8674,-0.0
25.984199999999998,6.7056,-0.0
25.984199999999998,7.543799999999999,-0.0
25.984199999999998,8.382,-0.0
25.984199999999998,9.2202,-0.0
25.984199999999998,10.058399999999999,-0.0
25.984199999999998,10.8966,-0.0
25.984199999999998,11.7348,-0.0
25.984199999999998,12.572999999999999,-0.0
25.984199999999998,13.4112,-0.0
25.984199999999998,14.2494,-0.0
25.984199999999998,15.087599999999998,-0.0
25.984199999999998,15.925799999999999,-0.0
25.984199999999998,16.764,-0.0
25.984199999999998,17.6022,-0.0
25.984199999999998,18.4404,-0.0
25.984199999999998,19.278599999999997,-0.0
25.984199999999998,20.116799999999998,-0.0
25.984199999999998,20.955,-0.0
25.984199999999998,21.7932,-0.0
25.984199999999998,22.6314,-0.0
25.984199999999998,23.4696,-0.0
25.984199999999998,24.307799999999997,-0.0
25.984199999999998,25.145999999999997,-0.0
25.984199999999998,25.984199999999998,-0.10069930069930072
25.984199999999998,26.8224,-0.24055944055944056
25.984199999999998,27.6606,-0.2657342657342658
25.984199999999998,28.4988,-0.23496503496503496
25.984199999999998,29.337,-0.08391608391608392
25.984199999999998,30.175199999999997,-0.0
25.984199999999998,31.013399999999997,-0.0
25.984199999999998,31.851599999999998,-0.0
25.984199999999998,32.6898,-0.0
25.984199999999998,33.528,-0.0
25.984199999999998,34.3662,-0.0
25.984199999999998,35.2044,-0.0
25.984199999999998,36.0426,-0.0
26.8224,0.0,-0.0
26.8224,0.8382,-0.0
26.8224,1.6764,-0.0
26.8224,2.5145999999999997,-0.0
26.8224,3.3528,-0.0
26.8224,4.191,-0.0
26.8224,5.0291999999999994,-0.0
26.8224,5.8674,-0.0
26.8224,6.7056,-0.0
26.8224,7.543799999999999,-0.0
26.8224,8.382,-0.0
26.8224,9.2202,-0.0
26.8224,10.058399999999999,-0.0
26.8224,10.8966,-0.0
26.8224,11.7348,-0.0
26.8224,12.572999999999999,-0.0
26.8224,13.4112,-0.0
26.8224,14.2494,-0.0
26.8224,15.087599999999998,-0.0
26.8224,15.925799999999999,-0.0
26.8224,16.764,-0.0
26.8224,17.6022,-0.0
26.8224,18.4404,-0.0
26.8224,19.278599999999997,-0.0
26.8224,20.116799999999998,-0.0
26.8224,20.955,-0.0
26.8224,21.7932,-0.0
26.8224,22.6314,-0.0
26.8224,23.4696,-0.0
26.8224,24.307799999999997,-0.016783216783216783
26.8224,25.145999999999997,-0.13986013986013987
26.8224,25.984199999999998,-0.2601398601398601
26.8224,26.8224,-0.2965034965034965
26.8224,27.6606,-0.2965034965034965
26.8224,28.4988,-0.2657342657342658
26.8224,29.337,-0.2601398601398601
26.8224,30.175199999999997,-0.08951048951048951
26.8224,31.013399999999997,-0.0
26.8224,31.851599999999998,-0.0
26.8224,32.6898,-0.0
26.8224,33.528,-0.0
26.8224,34.3662,-0.0
26.8224,35.2044,-0.0
26.8224,36.0426,-0.0
27.6606,0.0,-0.0
27.6606,0.8382,-0.0
27.6606,1.6764,-0.0
27.6606,2.5145999999999997,-0.0
27.6606,3.3528,-0.0
27.6606,4.191,-0.0
27.6606,5.0291999999999994,-0.0
27.6606,5.8674,-0.0
27.6606,6.7056,-0.0
27.6606,7.543799999999999,-0.0
27.6606,8.382,-0.0
27.6606,9.2202,-0.0
27.6606,10.058399999999999,-0.0
27.6606,10.8966,-0.0
27.6606,11.7348,-0.0
27.6606,12.572999999999999,-0.0
27.6606,13.4112,-0.011188811188811189
27.6606,14.2494,-0.0
27.6606,15.087599999999998,-0.0
27.6606,15.925799999999999,-0.0
27.6606,16.764,-0.0
27.6606,17.6022,-0.0
27.6606,18.4404,-0.0
27.6606,19.278599999999997,-0.0
27.6606,20.116799999999998,-0.0
27.6606,20.955,-0.0
27.6606,21.7932,-0.0
27.6606,22.6314,-0.0
27.6606,23.4696,-0.0
27.6606,24.307799999999997,-0.1062937062937063
27.6606,25.145999999999997,-0.23216783216783218
27.6606,25.984199999999998,-0.29090909090909095
27.6606,26.8224,-0.32447552447552447
27.6606,27.6606,-0.27692307692307694
27.6606,28.4988,-0.3020979020979021
27.6606,29.337,-0.27692307692307694
27.6606,30.175199999999997,-0.12307692307692308
27.6606,31.013399999999997,-0.0
27.6606,31.851599999999998,-0.0
27.6606,32.6898,-0.0
27.6606,33.528,-0.0
27.6606,34.3662,-0.0
27.6606,35.2044,-0.0
27.6606,36.0426,-0.0
28.4988,0.0,-0.0
28.4988,0.8382,-0.0
28.4988,1.6764,-0.0
28.4988,2.5145999999999997,-0.0
28.4988,3.3528,-0.0
28.4988,4.191,-0.0
28.4988,5.0291999999999994,-0.0
28.4988,5.8674,-0.0
28.4988,6.7056,-0.0
28.4988,7.543799999999999,-0.0
28.4988,8.382,-0.0
28.4988,9.2202,-0.0
28.4988,10.058399999999999,-0.0
28.4988,10.8966,-0.0
28.4988,11.7348,-0.022377622377622378
28.4988,12.572999999999999,-0.13986013986013987
28.4988,13.4112,-0.22937062937062938
28.4988,14.2494,-0.17062937062937064
28.4988,15.087599999999998,-0.03076923076923077
28.4988,15.925799999999999,-0.0
28.4988,16.764,-0.0
28.4988,17.6022,-0.0
28.4988,18.4404,-0.0
28.4988,19.278599999999997,-0.0
28.4988,20.116799999999998,-0.0
28.4988,20.955,-0.0
28.4988,21.7932,-0.0
28.4988,22.6314,-0.0
28.4988,23.4696,-0.03076923076923077
28.4988,24.307799999999997,-0.15384615384615385
28.4988,25.145999999999997,-0.23496503496503496
28.4988,25.984199999999998,-0.27412587412587414
28.4988,26.8224,-0.28531468531468535
28.4988,27.6606,-0.3020979020979021
28.4988,28.4988,-0.2629370629370629
28.4988,29.337,-0.22937062937062938
28.4988,30.175199999999997,-0.09510489510489512
28.4988,31.013399999999997,-0.0
28.4988,31.851599999999998,-0.0
28.4988,32.6898,-0.0
28.4988,33.528,-0.0
28.4988,34.3662,-0.0
28.4988,35.2044,-0.0
28.4988,36.0426,-0.0
29.337,0.0,-0.0
29.337,0.8382,-0.0
29.337,1.6764,-0.0
29.337,2.5145999999999997,-0.0
29.337,3.3528,-0.0
29.337,4.191,-0.0
29.337,5.0291999999999994,-0.0
29.337,5.8674,-0.0
29.337,6.7056,-0.0
29.337,7.543799999999999,-0.0
29.337,8.382,-0.011188811188811189
29.337,9.2202,-0.027972027972027975
29.337,10.058399999999999,-0.027972027972027975
29.337,10.8966,-0.04195804195804196
29.337,11.7348,-0.21818181818181817
29.337,12.572999999999999,-0.23216783216783218
29.337,13.4112,-0.24895104895104897
29.337,14.2494,-0.2433566433566434
29.337,15.087599999999998,-0.13426573426573427
29.337,15.925799999999999,-0.027972027972027975
29.337,16.764,-0.0
29.337,17.6022,-0.0
29.337,18.4404,-0.0
29.337,19.278599999999997,-0.0
29.337,20.116799999999998,-0.0
29.337,20.955,-0.0
29.337,21.7932,-0.0
29.337,22.6314,-0.0
29.337,23.4696,-0.044755244755244755
29.337,24.307799999999997,-0.11748251748251748
29.337,25.145999999999997,-0.18741258741258743
29.337,25.984199999999998,-0.21818181818181817
29.337,26.8224,-0.2517482517482518
29.337,27.6606,-0.21818181818181817
29.337,28.4988,-0.17622377622377625
29.337,29.337,-0.1118881118881119
29.337,30.175199999999997,-0.0
29.337,31.013399999999997,-0.0
29.337,31.851599999999998,-0.0
29.337,32.6898,-0.0
29.337,33.528,-0.0
29.337,34.3662,-0.0
29.337,35.2044,-0.0
29.337,36.0426,-0.0
30.175199999999997,0.0,-0.0
30.175199999999997,0.8382,-0.0
30.175199999999997,1.6764,-0.0
30.175199999999997,2.5145999999999997,-0.0
30.175199999999997,3.3528,-0.0
30.175199999999997,4.191,-0.0
30.175199999999997,5.0291999999999994,-0.0
30.175199999999997,5.8674,-0.0
30.175199999999997,6.7056,-0.0
30.175199999999997,7.543799999999999,-0.0
30.175199999999997,8.382,-0.13986013986013987
30.175199999999997,9.2202,-0.3384615384615385
30.175199999999997,10.058399999999999,-0.06993006993006994
30.175199999999997,10.8966,-0.039160839160839164
30.175199999999997,11.7348,-0.20699300699300702
30.175199999999997,12.572999999999999,-0.23496503496503496
30.175199999999997,13.4112,-0.2517482517482518
30.175199999999997,14.2494,-0.24895104895104897
30.175199999999997,15.087599999999998,-0.19580419580419584
30.175199999999997,15.925799999999999,-0.03636363636363637
30.175199999999997,16.764,-0.0
30.175199999999997,17.6022,-0.0
30.175199999999997,18.4404,-0.0
30.175199999999997,19.278599999999997,-0.0
30.175199999999997,20.116799999999998,-0.0
30.175199999999997,20.955,-0.0
30.175199999999997,21.7932,-0.0
30.175199999999997,22.6314,-0.0
30.175199999999997,23.4696,-0.022377622377622378
30.175199999999997,24.307799999999997,-0.08391608391608392
30.175199999999997,25.145999999999997,-0.1062937062937063
30.175199999999997,25.984199999999998,-0.11748251748251748
30.175199999999997,26.8224,-0.07832167832167833
30.175199999999997,27.6606,-0.10349650349650351
30.175199999999997,28.4988,-0.05034965034965036
30.175199999999997,29.337,-0.0
30.175199999999997,30.175199999999997,-0.0
30.175199999999997,31.013399999999997,-0.0
30.175199999999997,31.851599999999998,-0.0
30.175199999999997,32.6898,-0.0
30.175199999999997,33.528,-0.0
30.175199999999997,34.3662,-0.0
30.175199999999997,35.2044,-0.0
30.175199999999997,36.0426,-0.0
31.013399999999997,0.0,-0.0
31.013399999999997,0.8382,-0.0
31.013399999999997,1.6764,-0.0
31.013399999999997,2.5145999999999997,-0.0
31.013399999999997,3.3528,-0.0
31.013399999999997,4.191,-0.0
31.013399999999997,5.0291999999999994,-0.0
31.013399999999997,5.8674,-0.0
31.013399999999997,6.7056,-0.0
31.013399999999997,7.543799999999999,-0.019580419580419582
31.013399999999997,8.382,-0.10069930069930072
31.013399999999997,9.2202,-0.14545454545454548
31.013399999999997,10.058399999999999,-0.016783216783216783
31.013399999999997,10.8966,-0.0
31.013399999999997,11.7348,-0.16783216783216784
31.013399999999997,12.572999999999999,-0.29090909090909095
31.013399999999997,13.4112,-0.3160839160839161
31.013399999999997,14.2494,-0.28531468531468535
31.013399999999997,15.087599999999998,-0.22097902097902097
31.013399999999997,15.925799999999999,-0.08671328671328671
31.013399999999997,16.764,-0.0
31.013399999999997,17.6022,-0.0
31.013399999999997,18.4404,-0.0
31.013399999999997,19.278599999999997,-0.0
31.013399999999997,20.116799999999998,-0.016783216783216783
31.013399999999997,20.955,-0.013986013986013988
31.013399999999997,21.7932,-0.013986013986013988
31.013399999999997,22.6314,-0.013986013986013988
31.013399999999997,23.4696,-0.0
31.013399999999997,24.307799999999997,-0.016783216783216783
31.013399999999997,25.145999999999997,-0.022377622377622378
31.013399999999997,25.984199999999998,-0.013986013986013988
31.013399999999997,26.8224,-0.0
31.013399999999997,27.6606,-0.0
31.013399999999997,28.4988,-0.0
31.013399999999997,29.337,-0.0
31.013399999999997,30.175199999999997,-0.0
31.013399999999997,31.013399999999997,-0.0
31.013399999999997,31.851599999999998,-0.0
31.013399999999997,32.6898,-0.0
31.013399999999997,33.528,-0.0
31.013399999999997,34.3662,-0.0
31.013399999999997,35.2044,-0.0
31.013399999999997,36.0426,-0.0
31.851599999999998,0.0,-0.0
31.851599999999998,0.8382,-0.0
31.851599999999998,1.6764,-0.0
31.851599999999998,2.5145999999999997,-0.0
31.851599999999998,3.3528,-0.0
31.851599999999998,4.191,-0.0
31.851599999999998,5.0291999999999994,-0.0
31.851599999999998,5.8674,-0.0
31.851599999999998,6.7056,-0.0
31.851599999999998,7.543799999999999,-0.0
31.851599999999998,8.382,-0.05034965034965036
31.851599999999998,9.2202,-0.039160839160839164
31.851599999999998,10.058399999999999,-0.0
31.851599999999998,10.8966,-0.0
31.851599999999998,11.7348,-0.16783216783216784
31.851599999999998,12.572999999999999,-0.3412587412587413
31.851599999999998,13.4112,-0.3552447552447553
31.851599999999998,14.2494,-0.3440559440559441
31.851599999999998,15.087599999999998,-0.27412587412587414
31.851599999999998,15.925799999999999,-0.193006993006993
31.851599999999998,16.764,-0.07272727272727274
31.851599999999998,17.6022,-0.04195804195804196
31.851599999999998,18.4404,-0.03076923076923077
31.851599999999998,19.278599999999997,-0.044755244755244755
31.851599999999998,20.116799999999998,-0.039160839160839164
31.851599999999998,20.955,-0.033566433566433566
31.851599999999998,21.7932,-0.027972027972027975
31.851599999999998,22.6314,-0.019580419580419582
31.851599999999998,23.4696,-0.0
31.851599999999998,24.307799999999997,-0.0
31.851599999999998,25.145999999999997,-0.0
31.851599999999998,25.984199999999998,-0.0
31.851599999999998,26.8224,-0.0
31.851599999999998,27.6606,-0.0
31.851599999999998,28.4988,-0.0
31.851599999999998,29.337,-0.0
31.851599999999998,30.175199999999997,-0.0
31.851599999999998,31.013399999999997,-0.0
31.851599999999998,31.851599999999998,-0.0
31.851599999999998,32.6898,-0.0
31.851599999999998,33.528,-0.0
31.851599999999998,34.3662,-0.0
31.851599999999998,35.2044,-0.0
31.851599999999998,36.0426,-0.0
32.6898,0.0,-0.0
32.6898,0.8382,-0.0
32.6898,1.6764,-0.0
32.6898,2.5145999999999997,-0.0
32.6898,3.3528,-0.0
32.6898,4.191,-0.0
32.6898,5.0291999999999994,-0.0
32.6898,5.8674,-0.0
32.6898,6.7056,-0.0
32.6898,7.543799999999999,-0.0
32.6898,8.382,-0.193006993006993
32.6898,9.2202,-0.15384615384615385
32.6898,10.058399999999999,-0.0
32.6898,10.8966,-0.0
32.6898,11.7348,-0.09230769230769231
32.6898,12.572999999999999,-0.2601398601398601
32.6898,13.4112,-0.33006993006993013
32.6898,14.2494,-0.2965034965034965
32.6898,15.087599999999998,-0.26853146853146853
32.6898,15.925799999999999,-0.21818181818181817
32.6898,16.764,-0.12867132867132866
32.6898,17.6022,-0.09230769230769231
32.6898,18.4404,-0.06153846153846154
32.6898,19.278599999999997,-0.05314685314685315
32.6898,20.116799999999998,-0.05594405594405595
32.6898,20.955,-0.027972027972027975
32.6898,21.7932,-0.019580419580419582
32.6898,22.6314,-0.0
32.6898,23.4696,-0.0
32.6898,24.307799999999997,-0.0
32.6898,25.145999999999997,-0.0
32.6898,25.984199999999998,-0.0
32.6898,26.8224,-0.0
32.6898,27.6606,-0.0
32.6898,28.4988,-0.0
32.6898,29.337,-0.0
32.6898,30.175199999999997,-0.0
32.6898,31.013399999999997,-0.0
32.6898,31.851599999999998,-0.0
32.6898,32.6898,-0.0
32.6898,33.528,-0.0
32.6898,34.3662,-0.0
32.6898,35.2044,-0.0
32.6898,36.0426,-0.0
33.528,0.0,-0.0
33.528,0.8382,-0.0
33.528,1.6764,-0.0
33.528,2.5145999999999997,-0.0
33.528,3.3528,-0.0
33.528,4.191,-0.0
33.528,5.0291999999999994,-0.0
33.528,5.8674,-0.0
33.528,6.7056,-0.0
33.528,7.543799999999999,-0.0
33.528,8.382,-0.05314685314685315
33.528,9.2202,-0.05594405594405595
33.528,10.058399999999999,-0.03076923076923077
33.528,10.8966,-0.0
33.528,11.7348,-0.0
33.528,12.572999999999999,-0.08111888111888112
33.528,13.4112,-0.2265734265734266
33.528,14.2494,-0.27412587412587414
33.528,15.087599999999998,-0.2657342657342658
33.528,15.925799999999999,-0.22937062937062938
33.528,16.764,-0.14825174825174825
33.528,17.6022,-0.10909090909090909
33.528,18.4404,-0.08671328671328671
33.528,19.278599999999997,-0.06433566433566433
33.528,20.116799999999998,-0.04195804195804196
33.528,20.955,-0.0
33.528,21.7932,-0.0
33.528,22.6314,-0.0
33.528,23.4696,-0.0
33.528,24.307799999999997,-0.0
33.528,25.145999999999997,-0.0
33.528,25.984199999999998,-0.0
33.528,26.8224,-0.0
33.528,27.6606,-0.0
33.528,28.4988,-0.0
33.528,29.337,-0.0
33.528,30.175199999999997,-0.0
33.528,31.013399999999997,-0.0
33.528,31.851599999999998,-0.0
33.528,32.6898,-0.0
33.528,33.528,-0.0
33.528,34.3662,-0.0
33.528,35.2044,-0.0
33.528,36.0426,-0.0
34.3662,0.0,-0.0
34.3662,0.8382,-0.0
34.3662,1.6764,-0.0
34.3662,2.5145999999999997,-0.0
34.3662,3.3528,-0.0
34.3662,4.191,-0.0
34.3662,5.0291999999999994,-0.0
34.3662,5.8674,-0.0
34.3662,6.7056,-0.0
34.3662,7.543799999999999,-0.0
34.3662,8.382,-0.0
34.3662,9.2202,-0.0
34.3662,10.058399999999999,-0.016783216783216783
34.3662,10.8966,-0.07272727272727274
34.3662,11.7348,-0.06153846153846154
34.3662,12.572999999999999,-0.022377622377622378
34.3662,13.4112,-0.06153846153846154
34.3662,14.2494,-0.16783216783216784
34.3662,15.087599999999998,-0.23776223776223776
34.3662,15.925799999999999,-0.18741258741258743
34.3662,16.764,-0.17342657342657342
34.3662,17.6022,-0.13706293706293707
34.3662,18.4404,-0.10909090909090909
34.3662,19.278599999999997,-0.039160839160839164
34.3662,20.116799999999998,-0.0
34.3662,20.955,-0.0
34.3662,21.7932,-0.0
34.3662,22.6314,-0.0
34.3662,23.4696,-0.0
34.3662,24.307799999999997,-0.0
34.3662,25.145999999999997,-0.0
34.3662,25.984199999999998,-0.0
34.3662,26.8224,-0.0
34.3662,27.6606,-0.0
34.3662,28.4988,-0.0
34.3662,29.337,-0.0
34.3662,30.175199999999997,-0.0
34.3662,31.013399999999997,-0.0
34.3662,31.851599999999998,-0.0
34.3662,32.6898,-0.0
34.3662,33.528,-0.0
34.3662,34.3662,-0.0
34.3662,35.2044,-0.0
34.3662,36.0426,-0.0
35.2044,0.0,-0.0
35.2044,0.8382,-0.0
35.2044,1.6764,-0.0
35.2044,2.5145999999999997,-0.0
35.2044,3.3528,-0.0
35.2044,4.191,-0.0
35.2044,5.0291999999999994,-0.0
35.2044,5.8674,-0.0
35.2044,6.7056,-0.0
35.2044,7.543799999999999,-0.0
35.2044,8.382,-0.0
35.2044,9.2202,-0.0
35.2044,10.058399999999999,-0.0
35.2044,10.8966,-0.013986013986013988
35.2044,11.7348,-0.06433566433566433
35.2044,12.572999999999999,-0.016783216783216783
35.2044,13.4112,-0.0
35.2044,14.2494,-0.0
35.2044,15.087599999999998,-0.07272727272727274
35.2044,15.925799999999999,-0.12867132867132866
35.2044,16.764,-0.16223776223776223
35.2044,17.6022,-0.09230769230769231
35.2044,18.4404,-0.019580419580419582
35.2044,19.278599999999997,-0.0
35.2044,20.116799999999998,-0.0
35.2044,20.955,-0.0
35.2044,21.7932,-0.0
35.2044,22.6314,-0.0
35.2044,23.4696,-0.0
35.2044,24.307799999999997,-0.0
35.2044,25.145999999999997,-0.0
35.2044,25.984199999999998,-0.0
35.2044,26.8224,-0.0
35.2044,27.6606,-0.0
35.2044,28.4988,-0.0
35.2044,29.337,-0.0
35.2044,30.175199999999997,-0.0
35.2044,31.013399999999997,-0.0
35.2044,31.851599999999998,-0.0
35.2044,32.6898,-0.0
35.2044,33.528,-0.0
35.2044,34.3662,-0.0
35.2044,35.2044,-0.0
35.2044,36.0426,-0.0
36.0426,0.0,-0.0
36.0426,0.8382,-0.0
36.0426,1.6764,-0.0
36.0426,2.5145999999999997,-0.0
36.0426,3.3528,-0.0
36.0426,4.191,-0.0
36.0426,5.0291999999999994,-0.0
36.0426,5.8674,-0.0
36.0426,6.7056,-0.0
36.0426,7.543799999999999,-0.0
36.0426,8.382,-0.0
36.0426,9.2202,-0.0
36.0426,10.058399999999999,-0.0
36.0426,10.8966,-0.0
36.0426,11.7348,-0.0
36.0426,12.572999999999999,-0.0
36.0426,13.4112,-0.0
36.0426,14.2494,-0.0
36.0426,15.087599999999998,-0.0
36.0426,15.925799999999999,-0.0
36.0426,16.764,-0.0
36.0426,17.6022,-0.0
36.0426,18.4404,-0.0
36.0426,19.278599999999997,-0.0
36.0426,20.116799999999998,-0.0
36.0426,20.955,-0.0
36.0426,21.7932,-0.0
36.0426,22.6314,-0.0
36.0426,23.4696,-0.0
36.0426,24.307799999999997,-0.0
36.0426,25.145999999999997,-0.0
36.0426,25.984199999999998,-0.0
36.0426,26.8224,-0.0
36.0426,27.6606,-0.0
36.0426,28.4988,-0.0
36.0426,29.337,-0.0
36.0426,30.175199999999997,-0.0
36.0426,31.013399999999997,-0.0
36.0426,31.851599999999998,-0.0
36.0426,32.6898,-0.0
36.0426,33.528,-0.0
36.0426,34.3662,-0.0
36.0426,35.2044,-0.0
36.0426,36.0426,-0.0
36.8808,0.0,-0.0
36.8808,0.8382,-0.0
36.8808,1.6764,-0.0
36.8808,2.5145999999999997,-0.0
36.8808,3.3528,-0.0
36.8808,4.191,-0.0
36.8808,5.0291999999999994,-0.0
36.8808,5.8674,-0.0
36.8808,6.7056,-0.0
36.8808,7.543799999999999,-0.0
36.8808,8.382,-0.0
36.8808,9.2202,-0.0
36.8808,10.058399999999999,-0.0
36.8808,10.8966,-0.0
36.8808,11.7348,-0.0
36.8808,12.572999999999999,-0.0
36.8808,13.4112,-0.0
36.8808,14.2494,-0.0
36.8808,15.087599999999998,-0.0
36.8808,15.925799999999999,-0.0
36.8808,16.764,-0.0
36.8808,17.6022,-0.0
36.8808,18.4404,-0.0
36.8808,19.278599999999997,-0.0
36.8808,20.116799999999998,-0.0
36.8808,20.955,-0.0
36.8808,21.7932,-0.0
36.8808,22.6314,-0.0
36.8808,23.4696,-0.0
36.8808,24.307799999999997,-0.0
36.8808,25.145999999999997,-0.0
36.8808,25.984199999999998,-0.0
36.8808,26.8224,-0.0
36.8808,27.6606,-0.0
36.8808,28.4988,-0.0
36.8808,29.337,-0.0
36.8808,30.175199999999997,-0.0
36.8808,31.013399999999997,-0.0
36.8808,31.851599999999998,-0.0
36.8808,32.6898,-0.0
36.8808,33.528,-0.0
36.8808,34.3662,-0.0
36.8808,35.2044,-0.0
36.8808,36.0426,-0.0
37.718999999999994,0.0,-0.0
37.718999999999994,0.8382,-0.0
37.718999999999994,1.6764,-0.0
37.718999999999994,2.5145999999999997,-0.0
37.718999999999994,3.3528,-0.0
37.718999999999994,4.191,-0.0
37.718999999999994,5.0291999999999994,-0.0
37.718999999999994,5.8674,-0.0
37.718999999999994,6.7056,-0.0
37.718999999999994,7.543799999999999,-0.0
37.718999999999994,8.382,-0.0
37.718999999999994,9.2202,-0.0
37.718999999999994,10.058399999999999,-0.0
37.718999999999994,10.8966,-0.0
37.718999999999994,11.7348,-0.0
37.718999999999994,12.572999999999999,-0.0
37.718999999999994,13.4112,-0.0
37.718999999999994,14.2494,-0.0
37.718999999999994,15.087599999999998,-0.0
37.718999999999994,15.925799999999999,-0.0
37.718999999999994,16.764,-0.0
37.718999999999994,17.6022,-0.0
37.718999999999994,18.4404,-0.0
37.718999999999994,19.278599999999997,-0.0
37.718999999999994,20.116799999999998,-0.0
37.718999999999994,20.955,-0.0
37.718999999999994,21.7932,-0.0
37.718999999999994,22.6314,-0.0
37.718999999999994,23.4696,-0.0
37.718999999999994,24.307799999999997,-0.0
37.718999999999994,25.145999999999997,-0.0
37.718999999999994,25.984199999999998,-0.0
37.718999999999994,26.8224,-0.0
37.718999999999994,27.6606,-0.0
37.718999999999994,28.4988,-0.0
37.718999999999994,29.337,-0.0
37.718999999999994,30.175199999999997,-0.0
37.718999999999994,31.013399999999997,-0.0
37.718999999999994,31.851599999999998,-0.0
37.718999999999994,32.6898,-0.0
37.718999999999994,33.528,-0.0
37.718999999999994,34.3662,-0.0
37.718999999999994,35.2044,-0.0
37.718999999999994,36.0426,-0.0
38.557199999999995,0.0,-0.0
38.557199999999995,0.8382,-0.0
38.557199999999995,1.6764,-0.0
38.557199999999995,2.5145999999999997,-0.0
38.557199999999995,3.3528,-0.0
38.557199999999995,4.191,-0.0
38.557199999999995,5.0291999999999994,-0.0
38.557199999999995,5.8674,-0.0
38.557199999999995,6.7056,-0.0
38.557199999999995,7.543799999999999,-0.0
38.557199999999995,8.382,-0.0
38.557199999999995,9.2202,-0.0
38.557199999999995,10.058399999999999,-0.0
38.557199999999995,10.8966,-0.0
38.557199999999995,11.7348,-0.0
38.557199999999995,12.572999999999999,-0.0
38.557199999999995,13.4112,-0.0
38.557199999999995,14.2494,-0.0
38.557199999999995,15.087599999999998,-0.0
38.557199999999995,15.925799999999999,-0.0
38.557199999999995,16.764,-0.0
38.557199999999995,17.6022,-0.0
38.557199999999995,18.4404,-0.0
38.557199999999995,19.278599999999997,-0.0
38.557199999999995,20.116799999999998,-0.0
38.557199999999995,20.955,-0.0
38.557199999999995,21.7932,-0.0
38.557199999999995,22.6314,-0.0
38.557199999999995,23.4696,-0.0
38.557199999999995,24.307799999999997,-0.0
38.557199999999995,25.145999999999997,-0.0
38.557199999999995,25.984199999999998,-0.0
38.557199999999995,26.8224,-0.0
38.557199999999995,27.6606,-0.0
38.557199999999995,28.4988,-0.0
38.557199999999995,29.337,-0.0
38.557199999999995,30.175199999999997,-0.0
38.557199999999995,31.013399999999997,-0.0
38.557199999999995,31.851599999999998,-0.0
38.557199999999995,32.6898,-0.0
38.557199999999995,33.528,-0.0
38.557199999999995,34.3662,-0.0
38.557199999999995,35.2044,-0.0
38.557199999999995,36.0426,-0.0
39.395399999999995,0.0,-0.0
39.395399999999995,0.8382,-0.0
39.395399999999995,1.6764,-0.0
39.395399999999995,2.5145999999999997,-0.0
39.395399999999995,3.3528,-0.0
39.395399999999995,4.191,-0.0
39.395399999999995,5.0291999999999994,-0.0
39.395399999999995,5.8674,-0.0
39.395399999999995,6.7056,-0.0
39.395399999999995,7.543799999999999,-0.0
39.395399999999995,8.382,-0.0
39.395399999999995,9.2202,-0.0
39.395399999999995,10.058399999999999,-0.0
39.395399999999995,10.8966,-0.0
39.395399999999995,11.7348,-0.0
39.395399999999995,12.572999999999999,-0.0
39.395399999999995,13.4112,-0.0
39.395399999999995,14.2494,-0.0
39.395399999999995,15.087599999999998,-0.0
39.395399999999995,15.925799999999999,-0.0
39.395399999999995,16.764,-0.0
39.395399999999995,17.6022,-0.0
39.395399999999995,18.4404,-0.0
39.395399999999995,19.278599999999997,-0.0
39.395399999999995,20.116799999999998,-0.0
39.395399999999995,20.955,-0.0
39.395399999999995,21.7932,-0.0
39.395399999999995,22.6314,-0.0
39.395399999999995,23.4696,-0.0
39.395399999999995,24.307799999999997,-0.0
39.395399999999995,25.145999999999997,-0.0
39.395399999999995,25.984199999999998,-0.0
39.395399999999995,26.8224,-0.0
